# 3D point list with one line of data per point:
#   POINT3D_ID, X, Y, Z, R, G, B, ERROR, TRACK[] as (IMAGE_ID, POINT2D_IDX)
# Number of points: 327, mean track length: 10.016919426390178
13683 0.56243107229817957 4.0395324572381091 -10.333152252044345 174 163 159 1.9948427350408056 37 128 355 243 325 81
13030 0.77308924657171885 -3.8097391098249105 6.2475876497328677 135 144 147 0.39702816174396038 79 468 42 231 43 424 40 188 42 55 80 178 83 374 82 399 41 97
13031 0.46178042784388662 -3.7948559806333795 5.9623683246278185 53 67 72 0.40559000060277872 79 535 42 238 40 413 80 329 41 249 82 441 81 252
14196 9.6880827300036785 5.4112782833907414 14.257095145773064 95 135 161 1.7049603698188447 204 288 245 155
13033 1.8497360221051831 -3.4026973481198417 2.3314569505102125 63 63 65 0.66470678720155119 39 360 43 443 42 247 40 65 2 171 41 109
14206 5.4360810425111872 -3.2697270143992605 5.094191915867297 21 21 19 1.6234330279987668 237 340 246 294 245 324 236 367 206 412
13034 1.2928369543203035 -3.4561343416001349 2.7028739827854951 136 150 158 0.76333168091834269 39 469 42 251 3 352 40 332 359 258 3 370
13691 3.5263468705154386 -2.9802326723203532 1.7861465247992003 155 155 153 0.38327783810808136 38 261 325 174
13035 -0.66653759835768056 -3.5561472792210442 4.5907342588000111 134 138 143 1.2802694537453594 78 573 84 577 42 259 40 422 80 338 41 264 1 377
13037 -5.409997236047948 -3.8309332125477846 7.7850834935354918 95 99 98 0.63899444954329976 118 532 42 273 124 371 82 374 120 285
13041 0.64547168902093321 -3.7642647606210566 6.2506217230381571 67 80 89 0.39333845198235817 79 588 42 354 40 468 41 247
14150 7.304606428480211 -4.019942686436357 14.823671769458198 112 120 123 1.5481334977835939 165 366 197 326 205 297 237 339 198 359 157 415 204 383 199 473 203 432 200 450 201 542 162 298 163 286 164 234 158 270 160 132
13042 2.0971647577051913 -3.4204065071146195 2.8387167669869093 69 74 76 0.58910277369275066 39 358 42 356 3 265 40 215 2 272 41 250 1 201 360 303 359 223
13046 -2.1106457271616383 8.3296259844107503 0.012027774023960222 173 169 166 0.28447155774168226 39 457 43 545 42 405
13049 -3.5305098084446307 -3.345911600886823 3.2169076329404129 154 161 168 1.0135736277281591 79 599 42 431 83 468 41 394
14158 11.13487533225325 -3.3490739319078742 14.58076157362909 53 63 62 1.1426705934070955 165 21 197 41 204 96 246 65 245 51 244 218 243 409 203 111 242 384 201 361 163 109 241 313
13050 0.19461218619569018 -3.9156459059647255 7.8909367627036673 138 133 133 0.66307643097325186 79 537 42 454 119 541 82 447 120 318
13643 6.9165915509705762 -1.6144136735921961 5.2015145091490185 41 49 46 0.71414169069529498 1 382 360 313
13051 0.018877453528290067 -3.8267586075138227 6.8508988323254663 140 143 142 0.70204919068805205 43 621 42 486 40 554
13053 -13.169236789935486 6.4908588321041272 9.7254528719217852 165 151 140 0.59764062287084074 43 591 42 507 79 617 80 446
13055 -3.2321810275233065 8.2343932303099869 -0.9694497703134346 177 172 168 1.3476445090767259 79 679 42 526 80 497 41 576
14156 8.3088273967567563 -4.3013418729631407 9.8564863133617742 36 47 49 0.28781336699980398 198 40 205 25 238 44 204 57 244 164
13058 -3.3550846408553978 -3.5632720764528529 4.1714194226313532 129 138 145 0.31999473006536483 42 544 40 570 83 508
13059 0.69371166228119818 -3.3244384584847126 1.3023239324649167 167 172 175 1.5781748329126681 43 646 42 557 40 569 41 597 1 523
13490 1.4743850548822119 -3.8582913035055331 8.5631522472466184 176 177 177 0.75575156525709852 125 496 124 426 157 390 165 362
13060 -2.5674831390704775 9.8168148960110564 -0.83226498098855783 168 161 155 1.8260417168793452 39 558 42 564 3 417 41 614
14007 6.3304799815519868 -3.600189584824486 6.2256117365052921 29 30 32 0.95519574681214436 206 416 236 369 237 344 205 299 246 281 245 326 247 109
13062 -3.8184504039534417 9.6583940929637055 -0.26970041836662451 203 205 202 1.7253451101508039 39 571 42 574 40 586 41 620
14001 12.196692250174301 7.1046474214154332 14.135471352411463 33 50 58 1.0032488333349838 206 362 237 273 205 253 246 237 238 413 204 353 245 255 199 433 239 405 244 396
13067 2.0643528237152573 -3.4201804066167312 2.4145177176441619 75 79 88 0.29819896809233493 38 10 3 40 359 75
13498 2.6929637293216437 -3.5505433447457437 4.2554659916031499 143 146 151 0.90482279122343501 42 33 1 60 360 279
13068 -1.3892908548291336 -3.4869398243714977 3.3375281983810741 88 102 107 0.298525265359111 38 185 3 48
14015 8.3453769119331813 -3.848653286711452 9.435846493714088 46 52 53 1.8561230800711332 168 91 167 150 195 247 234 234 166 303 207 136 196 294 235 178 248 161 206 245 236 263 237 247 191 124 169 108 209 106 168 243 194 274 167 261 208 266 233 109 223 175 181 225 234 236 249 239 260 218 259 189 248 287 247 67 247 114
13073 -0.15796470815583519 -3.3875619485230479 2.7825817866629352 72 81 80 1.143182188636491 4 311 38 286 44 160 3 141 78 328
13074 -1.0100425101468993 -3.4558708463714134 2.9051599853501524 145 150 155 1.543361387623984 78 44 3 143 4 181 44 30
13075 1.19545299571607 -3.2390884257560248 1.1358393255853323 162 162 165 1.0006984521050206 38 295 3 155 44 372
13076 -4.0470604595824815 -2.063837694782904 -8.0136085518467173 146 140 137 0.31734675626593478 5 240 3 181
13959 9.8719758461379801 -2.6875578432862666 13.812099808199196 55 60 64 1.7953307515199446 168 365 169 335 209 314 234 369 197 271 194 291 208 278 239 388 199 318 161 354 163 204
13082 2.1443903684812766 -3.2265907376917911 -0.08423990959028832 65 71 71 0.66825751649491894 38 404 3 220 358 194 5 490 357 325 37 548 325 284 324 218
13083 -1.2338669588495967 8.5812197509374322 -8.3085748745809074 151 151 156 0.39245630911439144 4 229 3 249
13450 10.339151378898208 -3.4655336595190334 14.765871925563575 33 39 43 0.86640863960472037 180 197 196 202 206 155 236 196 166 85 165 143 197 105 237 197 205 123 238 290 198 244 204 197 199 311 201 481 162 170 202 226 164 116
13084 -3.1825202442409348 8.8001497723111406 -7.8133001355252558 131 138 143 1.1811063736344478 39 343 356 401 3 250 326 447 359 196
13967 12.053675796001754 7.3702441521145561 13.425841436125726 64 96 115 1.798879048075765 206 446 236 384 196 554 237 335 198 379 238 449 204 388 239 445 203 434 244 431
13088 -7.6970906737971658 5.3544685970079025 -6.0643493994760433 0 0 0 0.77465818239525353 42 308 46 530 76 527
13090 1.307342926949276 -3.368054116168866 2.1511740715182577 141 154 160 1.5205324788029595 42 460 3 397 2 516
13096 4.2759747881498988 -0.93451015448142738 6.4919914624780954 125 139 148 0.18127275147781291 39 573 3 431
14794 6.7933871846345601 -2.7454881695092137 -0.74672493199391365 95 113 122 1.903008972050048 222 407 247 190 275 85 287 179
13098 1.3574124347029279 -3.5895928993399595 2.8034808188003493 130 145 152 1.4993642488454457 42 490 3 406 40 523 359 283
13102 0.54058070036720463 -3.7354960823898722 5.796120950112396 79 91 93 0.33778968878491605 43 200 79 48 40 51 83 18
13768 3.2152698768797476 -2.9641442606978079 -0.11702990160640606 119 127 128 0.66399590315316737 326 136 357 39 316 164
13913 11.218644751705636 -3.7171331089316553 14.446616051706917 18 23 26 0.88260484224011626 166 386 165 318 196 305 206 256 236 275 197 213 237 300 205 236 246 261 198 329 245 280 199 419 238 350 239 351 203 360 204 314 198 328 244 409 243 534 202 408 240 436 200 399 242 528 201 509 161 411 162 282 162 283 161 410 163 258 241 401 164 204 164 205
13103 1.7872212458353518 -3.5702352855319401 3.8610928268203888 92 103 109 0.57873848799169403 43 310 40 56 39 355 3 258 2 261 360 225
13106 5.5751404144705132 -0.63553411125245141 8.012728466788916 174 173 171 0.0040849695452532262 42 441 40 115
13107 1.1037135631141011 -3.7593226082075248 5.9858270009685128 132 137 140 0.58827312415741262 43 421 79 356 40 187 80 55 82 196
13474 5.6648358494380497 -3.7978231301017584 6.0942209425898062 25 27 24 2.0671486175060747 194 592 207 376 235 320
13109 1.975540620693331 -3.2159476775212115 0.45440413248669848 154 157 158 0.78910594036273696 3 278 39 372 42 255 43 514 40 225 2 286 41 260 1 94
13783 12.473367071894369 0.42617768146812474 14.408434615307508 75 98 106 1.018322950848729 193 148 234 129 206 168 233 130 168 272 260 227 220 159 238 303 247 81 259 199 179 370 223 186
13111 -10.294957234726677 8.4783600047602103 -4.2527748751999281 202 191 183 0.81210381339465454 79 577 40 285 41 518 44 487
14801 7.0512915075396991 -3.3879903240037899 2.3119219529123662 53 62 59 1.7447706861946586 359 227 324 244
13112 0.22322326157128006 -3.8711404370482096 7.0713188517213714 112 118 121 0.30493419211118322 79 54 40 299 43 307 119 209
14810 -0.59309902328427067 -3.9254019338137764 8.3047299875697913 93 101 99 0.26216386805475134 42 64 82 256 119 62 123 305 80 87 79 69 120 165
13115 2.2898997205527936 -3.5285863514241615 3.9171359161863237 124 133 138 0.61068282710793398 39 420 40 319 360 287 2 259
13116 2.3655139525228601 -3.3943521769635123 3.561703173626197 137 137 137 0.98729011745001705 3 304 39 422 42 351 43 499 40 325 2 346 41 366 360 294
13999 8.4707868771697115 -3.9110803676159844 7.497645671604837 23 27 28 0.78565906904734151 197 261 236 170 237 240 206 141 196 187 205 226 246 110 245 232 243 545
13118 -3.7744117738963419 -3.3417814306674587 5.8871927829348616 97 92 86 0.76799929122148991 39 434 79 299 40 347 43 370
13784 12.257451240182499 1.5860278314191631 14.2993809892681 70 96 109 0.70066988924357743 196 322 221 219 206 173
13121 2.3559937195739109 -3.4906079946921693 3.7705039453552831 56 61 65 0.81191234372698229 3 385 42 456 40 472 2 459 41 447 1 376 360 377
13122 -0.17007866134630947 -2.5524942432353237 -4.6112516166170412 176 172 169 0.91161503280625522 38 552 40 482 358 274
13123 -3.8999455107715408 4.0339941358147318 5.3728301868316679 201 175 160 1.863447735107735 42 399 43 569 80 419 40 490
13554 0.17635721475478094 -3.8998247607842074 7.3937062104631535 95 98 96 0.39345115583158424 84 220 118 309 82 61 124 198 157 190 117 245 120 34
13130 -3.5494048482197016 -3.298680159648459 4.8185037082687048 163 160 155 1.0535669086628292 39 503 43 525 79 550 42 276 40 436 76 463 45 508 77 436 44 395 78 506 85 378 84 461 126 485 118 608 80 300 83 428 82 461 81 269
13134 0.83136860688785885 -3.7418062586692371 5.7346288380813917 66 77 83 0.44852054908136346 79 230 80 60 43 187 83 291 82 324
14073 9.0926501828410586 -4.0987528831718452 10.33325537417857 14 23 22 0.57094080254440371 197 26 238 192 198 154 204 174 244 272 243 460 199 287 203 281 239 291 240 373 200 379 242 473
13138 -11.899084947939407 8.7755363623782188 -6.9606987034073855 185 168 161 1.3947869989786108 38 375 43 162 80 136 2 224
13347 3.8475968536772549 -3.0319506221283481 -0.39633485091907955 107 111 114 0.96491287083275579 301 33 288 194 261 20 274 97
13139 1.2875846199606451 -3.6331099268938161 2.3208258160404229 107 111 116 0.52938531016100732 3 135 43 206 80 177 359 71
13506 5.1848969801704623 -3.0634513798312977 3.7797194782347758 42 48 46 1.4972627293864504 40 496 1 291
13143 -0.21115949363668871 -3.5748615692210826 4.5510138421226056 81 86 88 0.85445589927192533 40 419 42 257 78 492 84 552 80 284 44 433 41 261 1 440 82 477 81 295
13145 -5.8633423772753845 7.3622062604322451 7.4856655636445035 178 142 110 1.2442862396339383 84 421 80 378
13870 5.569752353780121 8.3589142807826828 -8.2012052052525224 107 112 118 1.0758734462144393 316 156 287 137 326 120 356 134 317 68
13149 -7.3319847572736059 6.8425528427177644 8.4263652496552659 150 122 102 0.76140853721994128 118 637 80 421 83 478 119 578
13157 -9.5000090037533145 8.0078386265471178 1.7388098880980269 49 50 40 1.237756948394851 74 402 46 315 76 233 77 250 44 137 39 252 80 138 109 496 111 450 107 473 108 471 106 480 110 437 104 361 89 489 99 495 100 439 88 535 90 408 91 523 95 518 92 478 96 539 98 357 61 584 48 511 46 499 36 603 87 464 37 503 45 482 86 613 38 498 44 423 85 403 84 544 40 289 83 358 2 447 1 337 82 470
13969 12.57470812781089 7.0162397196270545 13.492554558133463 38 52 61 1.1832228878631033 196 569 197 357 238 458 198 388 204 393 239 451 203 443
13160 -8.3175631600847755 7.9704511884031684 -9.5209445643402102 204 204 204 2.7075708845540625 75 668 79 683 80 507
13162 1.3267202500779867 -3.9710419031844388 7.8094515251776517 64 71 77 0.083588791871768375 80 33 83 8 119 203 82 202
13163 0.044352608709231224 -3.96887228829699 8.1237580596309265 110 120 121 0.71082050747496106 42 53 79 55 80 185 83 40 42 228 82 348
13164 -0.49433579093244068 -3.7966837499691528 6.6786065155732848 133 140 148 0.37610084161535245 43 205 79 70 117 255 83 48 85 288 125 256 119 220
13983 6.3912717552372946 -3.6137256148305719 6.1046682081210735 16 20 23 0.68537633402728348 236 36 237 102 196 176 206 26 205 162 246 19 245 92
13167 -1.230120329697703 0.70045488326943328 9.9906197729010628 103 100 92 0.20528834426805295 118 130 83 142 124 82 158 92
13169 1.3375121891616977 -4.0005161745365578 8.0891374634578597 123 135 135 0.52329949825652855 42 201 83 186 119 344
13170 -0.19185823287999068 -3.7580781023559284 7.0524209895743857 80 80 78 0.53670103126012281 80 193 84 363 83 223 40 411 42 244 120 273
13171 -3.3624041121659491 -3.35178899339944 5.7169642864530035 113 112 108 0.18042670390765125 42 119 43 366 84 291 118 356 83 241 119 470
13174 0.81634770419123204 -3.7545723093463477 5.7287086628683177 62 77 84 0.46475538272575995 79 229 80 61 83 290 43 188 82 323 81 39
13176 1.2616710103011692 -3.9963161612222495 8.076563291400694 86 97 99 0.39944183722162041 80 36 83 294 42 12 119 346 82 327 120 209
13179 -3.9521499412503927 -4.1006989987427254 9.0039285472791999 73 72 69 1.2256762607641762 79 391 118 466 83 330 84 388 123 443
13180 -4.9020972457082408 -3.9380082221456871 9.9031533653329422 47 43 40 0.29069798580363787 78 449 79 400 84 392 83 334 119 480
13182 -1.0807372417130785 3.9608637366006669 10.526396721129863 52 52 47 0.85550172741555286 118 410 83 363 84 502 124 351 158 229 123 427
13185 0.29474068996659386 -3.8729373628410899 7.2439230632470952 130 137 135 0.75151615709795527 42 350 83 415 41 244 124 423 119 540 157 388
13846 5.5389237590201796 -3.2499722783713221 3.0340637169932907 71 75 78 0.45025199692822976 360 301 359 221 40 462
13187 -0.53161990714530372 -3.8761786330217483 6.5620269264640427 72 83 92 0.76583570427102599 42 417 80 391 83 467 41 449 119 583 82 501 81 332 82 479 120 337
13193 2.7996675928669372 -3.5862957822567503 3.6439608427501158 112 119 121 0.37156094630449399 39 158 2 44 360 114
13854 0.96415457368132707 -3.6512072826855637 0.70936001631244849 88 87 83 2.4444378774101914 4 249 38 400 359 127
13194 1.7220386445741558 -3.6068194027237022 4.0673725965967389 118 127 134 0.74986150405315621 3 257 2 45 39 351 43 185
13195 1.7220386445741558 -3.6068194027237022 4.0673725965967389 118 127 134 0.74986150405315621 3 256 2 46 39 352 43 186
13199 2.0846035304683741 -3.3863204438343963 2.4535825562135276 85 90 94 0.28879922784335921 39 273 2 62 360 124
13852 -8.8981805632214677 5.7183006678485091 -8.1346526609225229 163 156 155 0.8762279382019631 356 484 3 378 357 387 360 385 359 264 342 482 353 672 354 611 341 517
13200 3.2232816119020065 -3.3714634986243937 1.897512828814689 130 140 141 0.81873266233070607 4 308 2 64 358 230 359 80
13201 1.7867481695163068 -2.9391058115503661 1.7260463290298018 166 162 161 1.4721319706946241 39 289 43 345 2 80 360 61
13926 2.0666051584289207 3.0279748201133949 13.492509969779789 186 177 168 2.9986085836784433 166 545 165 402
13202 2.0825752890383304 -3.6306402961738335 -1.1038313669585 142 148 148 1.6561581366367004 39 206 42 82 40 87
13411 5.1596670813905439 -3.5200818624911694 5.4384845213608344 5 8 7 1.1730472562940919 168 206 194 103 208 106 234 218 207 194 195 349 209 85 233 97 235 173 248 227 261 138 246 253 206 317 236 313 247 107
13203 2.2062755308563942 -3.1066879908821625 -0.095993454661851718 159 161 160 0.63649225269220544 38 405 2 87 4 263 360 69 325 287 5 437 357 292 37 509 324 221
13206 0.52324345346301859 -3.684042155553767 4.7062480311194008 125 134 139 0.72543513303545337 39 269 2 156 43 47 79 49 83 189
13207 -2.8249333381095849 -3.3602448986473963 3.9543241472974784 72 80 88 0.73601420606012713 83 87 2 177 39 91 82 110
13211 -7.202223175923419 4.0139651442770763 -12.437616372196294 177 177 177 0.65726477952515949 7 413 35 483 47 422 2 209 359 178
13214 -7.169650547759753 8.5863565781183571 -8.4089646398102555 174 166 164 1.4458521283321453 36 592 40 281 2 313 41 316 1 235 360 267
13219 -3.3409921872382671 0.51758284749691064 -5.5112792187848862 181 181 181 0.33776718498779923 6 421 40 361 2 371
13522 -0.48407972511334352 -2.7939495692625904 7.0276461409419051 117 111 110 0.6838511056099178 124 216 119 82 78 66 118 217
13220 2.3559937195739109 -3.4906079946921693 3.7705039453552831 58 62 66 0.8119123437269824 3 384 40 471 42 455 2 458 41 446 1 375 360 376
14039 13.041250030535432 3.2044275362849732 13.857343927116542 69 80 87 1.0819320918658573 206 271 197 229 205 205 206 184 235 72 236 212 237 68 197 178 238 362 204 322 199 255 239 127 243 309 242 326 201 520 241 251
13223 -5.5758950833610044 -1.0041067069935341 -8.4672138436162161 162 163 163 0.50532915347470697 37 569 2 468
13876 9.2176596445585961 6.8680484151197119 0.60482200168477185 117 108 105 1.0468450952613018 290 38 288 189 287 56 298 130 301 150 275 23 247 51
13227 1.5719432143121892 -3.4189257802815045 3.0664740915362749 139 152 160 1.5051201924696247 3 407 40 522 42 489 2 513 1 476 360 394
13233 -8.9461453348286391 5.7321360287898955 -8.1787737235401234 163 155 154 0.81038216537613805 20 482 8 554 7 523 6 579 342 481 354 612 341 516 355 444 5 537 356 483 4 385 2 474 45 557 38 529 36 650 37 576 76 526 77 537 44 484 78 581 43 566 79 637 40 486 357 386 41 514 1 454 360 384 358 289 359 265
13830 1.5226378969287009 -3.4398980264567833 2.0041702236048735 61 60 61 1.1386283491505513 358 141 359 78
13239 0.59735906097878133 -2.8854611664363596 -1.6329355945192605 135 134 135 1.8737549878501987 44 181 326 275 357 51
13828 1.537854510367094 -3.35005733223755 0.90804874671050018 111 109 112 0.58922194330153888 4 25 358 19 359 35
13241 -8.4795863522750476 -2.3847455112258675 -7.4847217396564227 142 146 147 1.6400542475018454 355 218 357 68 48 222 49 344 9 359
13838 3.4656176427623016 -3.4023775227340414 1.943084408177145 142 142 140 0.27840782806750031 358 182 359 123 4 233
13242 -2.7863810966467133 -1.933572701081872 -9.3310726828274113 156 158 157 0.62984186479113036 326 200 357 79 358 65 7 209 327 185
13323 0.9744531986437901 -3.9340176766994963 5.9449143156012259 150 151 153 1.2849621621911334 40 500 80 427 41 444 1 424 82 496 81 358
13243 -0.051530490725239339 -1.8458745594332049 -8.9969222765489931 96 95 93 0.48067309809286651 5 236 6 256 357 84 325 149
13245 -0.50430925676231453 -2.3959162343734679 -4.6935937516012576 162 158 157 0.9053151303565441 356 275 357 161 358 110 325 232 324 43
13247 1.332827636899238 -2.9354010863973676 -3.4579711527260537 163 163 165 0.43479361722807308 38 334 357 216 325 230
13836 2.1540841605785293 -3.3340092785398951 3.2724757100630941 145 145 143 0.63181165813529983 2 58 43 197 359 117
13249 1.3076280180226323 -2.8761624497059342 -7.2584110848090519 74 79 83 0.89538781330656725 38 343 357 222 324 151
13910 7.7739309992985497 -3.4192117584358424 10.224045307610123 76 80 82 0.59405960866222185 166 382 206 248 165 312 196 397 196 300 197 206 205 186 246 283 207 269 235 232 247 149
14631 9.8860919259304563 -4.4974187989493171 13.338241185993979 60 65 68 0.42888177133009808 201 63 242 245 161 175
13254 -1.5425105051708996 9.1286472958474789 -7.8530126944569769 95 103 114 1.0750106427024126 40 287 326 408 357 283
14628 8.2597615470208154 -4.4903653805083756 12.707098809000914 41 52 56 0.61339140734098674 201 203 202 48 161 157
13255 3.2944349641141071 -2.9288033029134293 0.2380195080595004 134 144 146 1.4208536592578263 326 450 357 326 325 265 317 131
13605 9.4590042502536793 -1.715558898201895 -0.053236513662894579 66 82 97 0.3945239109288779 234 107 301 93 221 84
13257 3.2344009798050539 -3.0023122381652612 -0.050451749552932398 47 59 59 0.51902645516102686 5 489 326 438 357 328 325 267 316 289 317 150
13918 -0.33125412031353324 2.6440344544582017 16.671087163527261 132 108 83 1.690603794065821 157 436 167 454 165 385 127 683 155 633
13258 1.0138878036156056 -3.1032671204348796 -0.12543951186691071 105 104 102 1.7759847047818618 5 493 38 477 357 329 4 320 44 470
13403 4.5091303989353326 -2.5465940026599561 8.7873423721249821 32 36 36 2.007351223961201 194 548 195 561 208 467 234 422 207 348 168 482 168 508 235 310
14632 5.9826531315062974 -4.5477224358343014 14.532820999236462 22 26 22 0.37247878039039523 200 189 202 280 161 193 162 39 163 25 160 42
13259 0.98352649253056734 7.5739335468135787 -9.1297240308439775 0 0 0 0.23706968184879185 35 610 36 652
13261 -3.2212073201696807 8.7940477330183704 -3.8095412786575942 168 164 155 2.0340598510489083 6 595 36 654 357 390
14627 8.251514956138136 3.8676592978278479 14.490436107592844 98 105 115 0.83778776138200428 240 146 161 148
13267 -11.530779749113824 5.787140799105841 -6.8511285518407039 171 159 146 1.2264232329135984 75 466 25 433 27 475 24 286 91 428 96 423 97 443 98 287 72 336 69 413 66 454 65 379 50 301 53 336 64 329 75 389 32 261 18 409 35 332 47 277 10 312 7 308 45 234 77 119 78 160 5 254 7 361 37 131 38 134
13268 -2.9576137002524767 -3.6644036193571985 5.2992357166745236 54 65 69 0.75122190104391684 87 191 114 320 154 334 115 369 127 388 86 236 101 236 126 50 77 181 86 462 85 63 84 83 39 204 126 299 117 284 118 334 125 267
13270 3.6571521509385918 -2.5879840021904408 -4.7487336989775004 48 60 62 0.83700439254236136 304 40 307 178 308 170 310 165 292 68 338 148 294 61 295 61 296 66 268 85 255 157 253 42 254 39 256 39 264 56 258 101 272 61 271 117 312 86 290 74
14644 16.235455775603324 1.1349257139085254 19.148574566392266 29 50 71 0.41426002556190777 200 116 243 177 161 278 162 177 163 119
13271 -0.33088977657836166 -3.6914827831602803 6.9602022707203925 90 94 93 1.263110457758591 132 347 133 382 134 251 135 357 136 388 137 324 145 215 146 157 147 273 148 259 150 291 173 121 175 122 186 109 187 105 131 284 139 343 143 269 191 100 185 170 179 342 153 211 169 90 129 369 183 295 193 358 211 162 216 232 217 237 214 249 213 213 215 199 219 290 142 179 180 180 209 350 128 324 140 204 154 344 182 171 168 220 194 429 220 348 115 530 127 467 155 359 167 239 195 494 181 343 141 312 116 595 126 189 126 385 116 414 156 362 166 424 78 192 85 296 117 263 125 368 157 302
13988 11.590084122193959 -0.99037404976421073 13.418305984943427 95 117 129 1.3626223536267601 166 316 196 215 236 85 237 137 246 165 203 312
13272 0.030425833125746558 -3.8019392983281572 6.1149188947867934 73 83 85 1.3446197849113775 78 488 43 330 84 433 79 253 126 367 118 510 40 52 83 204 129 177 143 164 142 157 179 230 183 222 219 169 180 273 209 285 128 503 182 244 194 420 220 388 177 211 186 100 211 245 216 228 192 189 115 609 127 540 155 329 167 224 181 265 119 348 82 55 81 55
13630 1.7210697541637885 -3.0983576170391856 1.5434468595087125 86 83 80 1.6902718887064536 43 67 360 60 359 87
13274 2.6645882073675615 -2.4472117432141993 -5.4561558507060877 20 26 27 1.0523800672483441 335 341 337 341 333 370 310 282 308 271 307 288 305 277 306 276 309 326 331 331 304 316 338 318 311 309 292 240 293 239 294 239 295 215 297 283 296 236 265 255 265 316 267 314 269 282 268 300 266 254 255 352 253 341 252 350 257 334 254 340 256 275 270 253 264 294 298 306 299 291 271 181 291 251 312 216 300 269 301 210 354 416 341 215 343 522 328 242 313 380 303 354 302 270 314 257 327 102 37 70 263 298 290 225 288 255 316 121
13483 0.49838553322447166 -3.8612827675770975 7.7710365508145305 154 153 148 1.1947086635093989 79 234 83 209 124 293
14648 5.5288794131001842 -4.3385980157949309 14.908373724663255 33 34 32 0.379175537726745 200 335 202 386 161 348 162 198 160 99
13275 4.1728545147646638 -3.6450618017768401 4.2358158917443864 112 127 134 0.31640595005315147 2 327 41 28 360 275
13277 3.3890929498802365 -3.5660881649946967 4.6627662665782559 115 116 119 0.99059806192525857 2 243 40 173 41 60 42 3
14643 10.010090164156132 -2.4475063616750847 14.493600458703545 32 32 33 0.29178060427490443 202 125 239 109 240 241 161 272 162 128
13278 3.3485285472837187 -3.5653304819611611 4.5466251147296486 42 43 45 0.41714040468211994 42 198 41 62 1 179
13279 2.6890264503834378 -3.7403847860144763 5.4753000028253878 125 128 133 0.77446781614799276 40 157 42 8 41 64 1 167
13629 1.6036194802816102 -3.1749200767231187 1.3020031443609381 86 83 80 0.29397427161422518 43 66 360 59
13996 7.9084079299585017 -3.3805210587354542 4.291901287851033 41 50 49 0.12438935750520767 236 164 237 233
13281 2.6041287514564635 -3.5962284630683308 4.260951349601136 40 48 51 0.54450520754125498 2 255 40 46 42 34 41 84 1 57 360 277
13942 8.5157001701564887 -4.0880688193703838 9.9745923852347413 20 28 31 0.97876566793216446 235 39 197 154 167 154 195 250 207 138 237 40 246 50 238 67 198 149 204 61 245 116 199 281 239 190 203 187 244 264 240 415 242 501
13282 2.6139187486891853 -3.5894479417530167 4.2706567708332468 40 48 51 0.57958916556922346 2 256 40 47 41 85 1 56 360 278
13427 15.172505756054321 -0.98593747792712716 18.229291778509861 124 154 165 0.89740956940940808 166 394 167 174 195 274 234 125 196 311 221 283 206 162 236 281 165 266 237 264 205 197 246 218 248 80 238 355 198 286 245 287 239 359 244 383 243 514 242 492 238 299 201 449 162 263 163 241 164 180 247 72 161 388 241 385
13284 1.4735718547827465 -3.7341727957434068 5.5621164516037078 95 101 108 0.38555168044613097 42 227 80 267 41 94 40 310
13285 1.5110431654366359 -3.5789879552821438 4.729044413794103 145 145 143 1.2008930393707271 39 495 41 99 43 501 79 581
13286 0.039035277761168094 -3.8623020611235992 7.2118535329067806 107 117 119 0.71358014962090854 83 216 41 102 119 459
13287 -0.69936358307399893 -3.8844892655566867 7.3381605128777476 84 85 87 0.32869467237670835 42 76 41 107 81 199
13289 2.0657712832267769 -3.1799459572907618 3.3919296710488012 150 154 156 1.4554392929895779 80 383 41 111 2 350 42 246 1 80
13950 11.62389855337468 2.965242184073837 13.848027527869778 80 104 116 0.83753126590600124 208 156 197 228 193 155 233 143 237 214 205 208 245 294 243 521
13290 1.1768954654598631 -3.1994522244893964 3.3997935204749461 132 143 149 1.0215708216384087 80 278 41 119
13291 -0.93331760400059749 -3.6638672029443318 4.0685188279924054 152 154 153 1.003962778344891 40 333 42 97 41 123 1 295
13293 3.9511220741138393 -3.5132643548464682 3.5636584295323823 53 58 61 0.29626012291595705 40 182 41 216 2 155 360 117
13294 3.2054300619282574 -3.5825229266984358 4.1072802285534333 128 128 134 0.81014368420227856 2 337 40 304 42 212 41 223 1 184 360 283
13295 3.1477784735025853 -3.577314375460074 4.1803411987945713 54 53 51 0.62785445155923958 40 305 42 216 41 225 2 335 1 182 360 281
13948 7.9882404572188817 -3.5384437203318568 8.428253034244845 22 29 28 1.6801338070777383 206 242 197 199 196 292 237 244 246 203 204 364
13296 1.9854493135595002 -3.6493721914002539 7.0605779957673125 130 130 136 0.69561157526914241 42 209 41 229 80 159 82 309
13297 2.9357616385642364 -3.4962588720804169 4.4493836787188012 140 141 145 0.37663778787982166 2 336 41 236 1 281
13894 -0.87084805879456106 -0.65862634694664579 13.146172552652208 86 82 75 0.56141202210118024 117 395 196 474 165 202 126 333 116 618 166 317
13298 1.3328584374211754 -3.8318371693735362 6.6160058157853836 47 52 51 0.43433571122453579 40 459 42 344 80 325 41 241 82 439 81 291
13307 -1.5598274692061813 8.1974037384501095 1.5538762832721538 169 165 162 1.1244776118651461 42 406 41 317 2 233
13308 -4.0781019521988293 7.729746936096956 7.0396501477473334 126 99 80 1.6702494172580393 79 210 41 319 82 172 81 214
13309 3.9846234564882401 -3.4284172342297339 3.3432377823593797 137 143 141 0.48974076823493806 2 408 40 409 41 351 1 193 360 230
13311 3.1206153871156848 -3.6616157437287966 4.6619645685815341 38 42 45 0.32278052721929806 40 391 42 332 41 353 1 276
13900 2.9714817116435075 -3.8667529348516791 8.0854082457531131 157 157 161 1.4093587521920838 157 305 166 196 165 248
13312 3.2920471285499562 -3.4920405555941709 4.7578166236739943 116 122 121 0.22356935527392188 40 394 42 330 41 354
13313 2.6011079953569904 -3.7252639351730408 4.3255927401606495 123 137 140 0.64337547104777704 42 219 41 358 1 368
14256 10.564863306890704 -3.868498949914871 6.887979135371638 53 63 60 1.1282150348141196 204 40 239 55 243 97 242 234 242 230 241 185 280 73 279 57 278 31
13314 2.5189816505555038 -3.5070770532149176 3.4937078563943933 131 142 148 0.24081371630992204 2 410 41 363 1 195 360 337
14781 -0.7630002775667466 -0.99008590635267724 9.7063441357281999 48 49 47 0.50479978809511117 79 558 83 402 119 525 165 368 123 452
13315 2.116756874113515 -3.5831444147765263 3.2383458701649186 143 143 143 0.7403072666414432 2 347 40 326 41 367 360 295
13317 -0.83711395116950249 -3.3790644355949397 -0.1826112675253268 0 0 0 1.0993177123252775 3 358 79 592 80 392
14260 10.979071327091381 -4.1411049334511949 7.3800832845656412 18 27 29 1.66976311250656 204 153 239 198 203 177 244 81 241 272 279 53 278 23
13320 -5.2652555108082852 7.51455809934152 7.2737725255157635 171 139 110 0.39125739364214429 43 420 41 424
13321 4.6270346600715753 -3.0594499005920222 4.4415635149519588 66 69 74 1.1233267450801097 2 487 41 430 40 520 1 185
14264 10.170365210846084 -3.4635971325055075 14.331627667199587 61 65 66 0.21212646963414722 165 20 237 54 239 223 202 120 240 234 201 267 162 123 163 108
13325 4.1237224077949168 -3.4400605948113943 3.4464509864420148 40 44 47 0.56762773662046961 2 455 40 502 41 485 1 373 360 338
14268 7.8850417976428195 -3.6768870514341163 7.1831685203566034 53 57 58 0.58727506643000538 238 23 239 250 244 158 278 146
13326 3.9982080583907225 -3.453369316780369 3.5933631758895537 60 65 68 0.26496316060379249 40 466 41 486 2 406
13328 4.163455918378113 -3.1176380956365777 3.4967031378921116 76 85 82 0.97355120774145831 2 489 40 505 41 491 1 439 360 367
13329 2.2191539045678734 -3.6221596671403762 3.9543156432803035 133 143 145 0.4796014412230919 2 511 40 506 42 485 41 493 1 475
14208 10.845775566593591 6.6306522427642625 15.556441279295798 78 103 121 1.2696167207331159 237 79 238 232 198 210 204 223 245 156 237 78 246 74 199 336 239 244 203 326 202 377 164 133
13330 0.68024795394092896 -3.6279026355997561 5.7450645772904005 147 151 152 0.74284742120735736 80 453 41 496 82 518 81 380
14733 11.28764452364152 -3.4946295013275153 11.584223497878588 12 22 24 0.49343248281395063 201 349 202 115 240 96 241 227 200 271 242 301
13331 -0.2888555344022003 -2.9474206329770487 -2.8547363944161526 176 175 172 1.3533716696761762 42 467 41 503 1 447 41 553 359 259 2 423 42 426
13333 0.76095655046306454 -3.790990994497105 5.9511770370172341 57 72 79 0.97487786497480755 40 555 42 515 80 472 41 543 82 541 81 379
14212 7.220236468510616 -4.307894707486045 13.418658919141208 21 25 24 0.75467770058002814 204 77 199 55 239 289 162 155 160 92 161 297
13335 -0.14851379842116366 -3.6390058947263504 4.8438943701227606 150 150 152 1.1116591521114576 80 434 41 549 1 511 82 533 81 381
13336 3.4118222056835288 -3.6114270066703993 4.0737734226752895 131 138 144 0.75281930440814881 2 531 40 542 41 565 1 474
14731 11.639112916108258 -4.0710911798490397 11.350302272684388 29 34 37 0.35227270429937058 202 207 240 216 242 291 241 217 200 179 280 136
13337 2.3317178148187048 -3.588266838814151 2.5222164983241324 147 153 159 0.67362761288294992 2 537 40 557 41 594 42 555
14216 15.81014756100539 5.9067480583506242 20.236496756420468 88 124 146 0.63092615778895245 197 61 205 76 199 118 239 128 243 310 242 327 241 252
13341 3.801918692093488 -1.3660779927881763 3.0649113637808245 170 171 168 2.6009724494596895 2 204 41 145
14220 11.618416263039768 -4.3480542647115881 11.025287459584598 8 18 19 0.5810810267462182 198 54 199 217 203 210 244 92 243 274 246 58 202 350 200 385 242 437 280 172
13343 4.6481723415184764 -2.9580216706981877 1.3838512799459795 135 134 139 1.4863929684454029 300 30 288 5
13344 4.3236817864954302 8.501086651948091 -10.50364097748454 49 55 59 1.2467555176558702 294 108 288 105 297 233 308 114 332 270 310 111 335 228 292 101 307 119
13349 9.5400688921304493 7.0294028123370698 0.89358719916068363 177 160 152 1.2449701146535044 268 124 288 240 274 116 299 103
13351 1.919786945927676 -1.196961365507015 -2.5607716034332593 112 121 123 1.3814909303883105 313 231 314 380 328 376 329 223 354 511 288 325 273 198 289 215
13354 7.4317274228765529 8.6461301151458692 -4.0824351570178203 56 54 53 1.3844858871220145 291 328 314 421 298 385 314 441 263 313 271 276 267 387 291 336 302 439 265 407 300 364 301 512 289 465 262 299 326 448 270 333 290 265 272 214 288 334 315 249 261 210 316 285 287 157 286 160
13359 1.2463806313964438 -2.6199466906746962 -5.6280774946647849 55 59 60 1.2153960896797484 314 177 315 17
13361 3.0885110992062339 -2.7307229439946079 -2.9197040588203249 70 81 87 0.37432833294460499 6 47 327 82 315 68 287 66
14240 10.755702394976133 -2.3093153600568992 14.722173589069369 115 120 126 1.2298187913228831 205 240 199 388 201 529 162 287 164 157
13362 0.60937658466703837 -1.6765210260556331 -10.547526435454445 113 113 111 0.57985024589078205 7 83 301 81 315 83
14765 9.1937193065703635 -4.0936316339956358 11.479814752768425 36 41 41 1.1197959439824503 199 218 203 208 163 133 164 48 239 209 244 194 243 462
13363 0.61553637516388116 -1.6812683336707852 -10.613024640482648 113 113 111 0.4850961290245232 301 80 315 84
13368 4.6061061515500414 -2.602812999013103 -6.3124798078923137 128 139 140 1.1394113781924096 326 192 315 132 316 124
14763 11.688426848131179 -5.0704090146647838 14.642210007925179 95 103 103 1.5662264143902882 200 205 240 217 242 433 201 346 162 159 164 172 204 260 238 279 203 354
13369 2.6855009215532828 -1.304569507862936 -3.1862847911913037 90 102 102 0.43352911195053112 6 243 327 186 315 136
14248 5.5513941846939447 -3.8794186666833967 15.268477949170084 94 98 97 1.3496442277726566 204 396 199 479 198 381 203 445 200 456 161 428 162 308 163 291 164 241 160 134 158 277
13371 2.8519259635308432 -2.9755548478265341 -1.1284330814853543 71 84 92 0.29145542949236786 326 152 327 227 315 164
13377 6.6019796056636597 8.6470356222862979 -5.6493264235930694 94 99 102 0.70863986427249714 300 392 302 465 326 480 315 283 316 309
13378 1.5715648552467576 -2.5024091690244363 -5.8435203480299602 113 117 118 1.4758317388334836 36 265 7 180 341 84 356 72 300 309 301 208 327 101 6 75 315 122 314 375 326 60
14845 1.9424306659366986 -3.7652974755605428 7.0478841327039996 96 97 100 0.23450196313782878 80 22 82 308 81 239 42 14
13381 4.9885329223079067 -3.4190819710558427 5.415636633773973 42 45 47 1.065956802798496 195 211 234 94 207 55 235 122 206 316 196 443 236 247 247 30
14324 10.931602903709962 -4.4291213821162865 12.782622678453713 28 38 42 0.69913756156720863 246 57 244 201 243 396
13383 3.7586001086713368 -3.6645617573728422 5.6106026272559637 95 99 99 1.3206692908378392 208 78 207 114 221 60 168 40 234 59
13384 4.4905567355120821 -3.6578930951479669 6.2083068880054757 88 90 90 1.1738761826073034 168 52 208 105 234 87 207 127 194 120 235 115 221 70 236 244
13387 3.8617743068517179 -3.4030590928622142 3.7858052670533882 0 0 0 0.075266281218446474 181 7 234 30
13389 4.2967517339723997 -3.4612886017968676 4.6695519554377087 37 42 45 1.5186763543273134 181 267 195 410 207 182 235 103 194 225 168 186 234 69 247 55
13394 3.8595474313134934 -3.22324672095964 3.4890462069878336 48 51 52 0.60302448768206374 208 336 207 235 194 417
13397 11.804573528362432 5.6656173831299954 20.321331577653307 49 77 97 0.37589309119697983 168 381 193 451 194 475 207 283
14276 10.164121061566139 -4.5467377072655513 14.133335817841724 40 46 44 0.41363721602152526 196 90 236 66 239 303 240 382 162 187
13400 6.4831448262973437 -3.6508939564365379 6.5280896643073349 50 54 54 1.036875171948453 234 362 207 307 196 546 235 229 206 437 236 370 237 338 205 300 246 295 245 322 247 162
14121 5.2903242939651252 -3.2637630551514043 0.82550280092366046 56 68 74 1.1265434336455677 213 68 220 287 189 64 186 54 263 143 219 35 209 190 233 207 234 342 249 143 273 194 260 119 269 56 300 219 301 318 259 103 288 243 274 127 287 116
14795 3.9489888643693409 -3.4467358791423015 4.7424394870416187 31 35 34 1.5291097377358902 195 321 207 108 235 162 248 220 247 102
13405 1.3770779329658822 0.15849722836294297 2.6715800794677396 153 152 152 0.11433901842673662 195 539 207 360
14284 7.953956506415671 -3.8700348234731869 7.3306000973094045 52 53 55 0.95381318623225342 204 361 238 418 239 429
14626 10.44785650293646 -2.6418260738472839 14.02367866727665 84 91 93 0.26764005303368232 242 148 161 85
13408 8.8715208888288029 -4.0829007347179305 10.094497062491476 53 59 61 0.67638202569384465 181 224 166 305 207 60 168 242 194 275 167 260 195 254 208 267 233 108 223 176 234 237 196 296 235 180 248 288 206 143 236 176 260 217 197 155 237 184 246 205 198 318 245 270 244 400 247 113
13409 4.4493622425678714 -3.4155528524144918 5.1576076462627736 34 38 41 1.902283878082208 168 205 181 273 207 191 208 97 222 84 221 67 248 223
14224 12.310485228634697 2.4834998596233664 14.737363212250782 117 151 165 0.73932893436516178 204 216 238 309 199 254 239 238 203 125 244 352 243 423 243 483 202 241 240 340 200 306 242 454 163 216 241 364 164 187
13410 4.0560534174997427 -3.6963903917459038 6.2108941332486394 29 36 37 0.98628362643612255 182 49 168 211 195 425 207 256 194 253 208 248 233 229 234 212 235 256
14749 5.7819418222686538 -4.398278710084802 14.317276147816024 12 18 17 0.45451082061604647 162 190 164 6 160 98
13413 6.7418494605212578 -2.9013209878191897 8.9287444053436094 53 59 60 0.4053854258259782 194 280 207 268 235 231 247 148
14228 9.1703963108541195 -4.0750024276864325 9.6390051657840452 43 51 54 1.0016071490905503 198 145 238 72 199 280 203 276 239 285 200 376 242 471
13415 10.05242771293625 -4.421918565985095 14.235980194857451 78 86 89 0.48030008671542129 208 128 234 244 196 92 206 152 236 188 197 33 237 127 198 236 199 302 199 379 239 345 203 297 203 355 202 356 240 385 201 478 161 343 162 227 163 234
13416 12.488203206470736 7.568184107225874 14.486152259611815 65 87 100 1.730784453533313 195 394 196 144 236 106 197 189 196 429 198 312 204 224 204 328 245 216 199 144 239 329
13417 4.5435317448452244 -3.7660487399946603 6.2516698580233889 41 47 47 0.64654551123387372 167 20 196 156 236 134
13418 7.677271224915609 -3.4309725342651594 7.8334814527432624 15 25 22 0.83565136677864005 169 100 196 192 206 41 246 113
13419 12.176708750627396 -4.4334793084154818 13.794773782331056 67 72 76 0.93697693602973076 234 112 196 200 238 208 198 238 206 56 204 194 245 131 203 303 201 441
13421 10.568278401552787 -3.1386931793436896 14.548352907182514 23 27 26 1.0651234283177551 207 68 234 250 196 206 193 137 208 277 238 293 203 307 201 485
13425 8.7521518536733431 -4.0281682245980504 10.023150067728457 62 66 67 1.0922685577351336 209 107 196 297 206 144 238 337 198 317 204 304 199 438 239 412 203 408 243 549 202 455 240 478 200 444 242 541
13426 8.5829273500931809 -4.3464458486008395 14.234801522867308 91 94 99 1.6495880752323699 168 254 196 304 194 286 238 389
14829 0.24575554651082981 -3.6546302947548903 4.7061353463466515 108 116 119 0.34372289663693417 82 334 81 48 80 76
13428 13.189076328848223 -0.34358676113586667 15.114433405906963 73 97 107 1.2083676955057054 207 73 196 318 194 298 195 275 183 139 193 145 208 138 206 166 204 272 247 76
13429 3.1121852010523599 -2.4532159346026772 6.458322274766461 44 53 60 2.951915603756889 167 145 196 393
14308 12.037698119211134 -4.2547585248939086 13.785792574432932 57 65 68 1.3712600018781949 197 39 246 60 165 139 245 133 203 224 237 50 238 90 197 103 198 69 245 132 199 241 239 221 244 213 163 139 241 307 164 56
13431 14.698446497453395 0.17709612160369193 17.379326970707393 28 55 66 0.77225041655870108 166 398 181 398 196 409 235 56 167 84 195 117 222 218 182 201 220 258 260 254 221 324 206 264 236 329 165 353 197 278 237 305 205 241 246 265 238 399 198 334 204 320 245 310 199 454 239 392 203 401 244 412 243 560 202 446 240 468 200 432 242 539 201 518 161 421 162 297 163 280 241 407 164 211 247 44
13432 -0.02654331804966133 0.097913775340296369 16.353804018000066 86 74 60 0.64620329217638439 126 335 168 271 196 410 165 206 197 279
13433 16.071393859377078 1.4048168912670189 18.897415767639153 28 54 67 0.98784392962438428 180 368 182 202 196 411 220 259 222 219 260 255 206 268 236 330 205 268 246 268 238 402 204 345 245 319 165 355 199 455 239 395 203 404 243 562 202 448 240 469 200 440 240 484 242 540 201 519 161 422 162 301 163 281 241 408 164 227
13434 4.9870443613553226 -3.4157582628848737 5.4135602153241509 46 49 48 0.95206053161437854 181 189 196 442 206 315 236 246 246 193 195 210 235 121 247 29
13437 5.6648010186224109 -3.4534952574284685 5.2751997270290882 15 18 17 1.0514576385354204 181 279 196 448 221 76 206 229 236 253 237 279 246 143 261 140 245 219
14316 11.242792058635935 -4.2760640860091881 10.816611006388468 47 56 61 0.65680566652886441 199 212 244 90 203 209 239 89 202 285 240 316 200 327 242 369 201 423 241 287 280 168
13439 12.540057527568045 -4.2833642632740858 13.091921175492438 19 23 24 1.1676787859478097 167 398 195 520 207 271 196 466 206 342 236 353 197 325 237 320 205 284 246 287 238 438 198 369 204 374 245 317 199 477 239 438 203 428 244 428 243 571 240 490 242 544 247 164 241 411 201 543
13440 0.81838371895599715 -3.6771967591629391 8.7698961118467462 146 146 146 0.35685388917734651 156 373 166 372 194 383 196 505 171 124
13443 1.7774277984533517 -0.12016439130084899 3.6266202533586851 165 161 160 0.19075212752233256 166 492 196 555
13444 10.492206294919779 -2.9813609727952493 14.286128420211632 49 53 52 0.82092980925508519 193 570 194 596 195 647 207 369 208 520 209 475 196 561 235 326 206 470 236 416 197 356 237 355 205 308 238 456 198 384 204 398 199 482 239 453 203 440 202 475 240 499 200 459 201 546 161 433 162 313 163 297 164 249
14101 10.561017689541453 6.3406322830936688 18.95587627612484 77 103 116 1.5552557219925986 205 137 238 410 164 161
13449 0.48784917808166467 -0.83468093270058985 15.851805351133377 76 70 64 1.7548341041043884 127 682 126 539 196 564 166 512 167 474
13451 9.913643669344296 6.7740089156298877 15.043460403846206 37 62 76 1.542136848500405 195 153 196 139 199 266 203 140
13453 16.98056099807787 6.5464781836964026 20.105957998596573 90 127 153 1.3340714819718154 196 417 220 262 221 287 197 284 196 332 205 244 246 230 237 268 205 209 198 261 245 295 244 356
14610 8.7026249490928826 -1.442863575226955 15.166646028928067 84 99 102 0.68938259132085278 239 231 201 487 161 317 162 133 163 47 160 101
13456 13.8927804068922 -0.079671151492758233 16.182104713923728 85 111 126 0.77290817131019129 167 179 195 115 196 319 207 74 235 54 182 102 166 396 180 205 222 125 260 154 206 167 236 284 246 222 238 357 204 273 247 79
13459 11.082463062142661 7.6233554365139673 16.203554757116809 63 82 97 1.7746591587669662 166 242 196 142 235 80 245 76
13460 3.0329027267510611 -3.6106168976923376 5.7846394347080103 63 63 61 0.3214850470007119 207 109 234 39 235 93 155 308 167 14
13462 1.5572431523315406 -0.061766726872165438 2.497883146975254 68 91 102 0.009635161768492044 207 158 235 151
13464 5.0930744995362467 -3.5314876909398594 6.1329085244799835 23 25 24 0.41260147813110976 196 497 235 225 206 391
13467 2.228825730556538 -1.2214145724491752 4.46224156235919 0 0 0 0.94412269906779434 182 190 196 379 206 380
14696 7.2793852729418989 -4.6327282964116696 15.172451460371986 9 13 12 0.43590192121435328 162 44 163 97 160 8
13468 3.1155658383375684 -2.6860063997970407 6.2046163839951785 53 58 61 1.9140169693319573 196 463 222 325 166 428 206 388 236 379 180 346
14189 10.613947714536177 -4.2441775287716679 11.061630525521636 47 57 58 0.55521604480346598 238 84 246 56 245 35
13469 5.5720284948539316 -3.3703453423535792 4.672764273138335 15 18 16 0.37954474121205406 207 374 220 429 222 363 235 314
14690 11.726784332663106 -4.5165605416257382 13.993745472541628 14 18 21 0.66929498316402181 161 252 201 253 163 22 241 299
13472 3.1378550811274035 -3.6421304270589139 5.8110986476921278 99 100 102 1.119130760916015 146 121 147 121 150 117 169 80 148 114 149 264 219 85 194 245 231 24 229 60 225 88 181 178 235 251 233 62 234 195 221 44 221 177
13477 -0.3342138954999615 -3.9113232354999186 7.7941573476943367 53 58 58 0.69778110470631594 43 34 124 111 158 48
14292 8.812041988631707 -4.4352176642749583 13.965030691873125 45 55 61 0.4412580809880336 204 84 203 92 163 21
13480 -1.1141007216310255 4.8810083709084591 10.503750764517811 93 85 80 0.29314532380175079 118 415 125 90 124 278
14137 7.4014450369866394 6.8015388436200608 15.189766732401033 41 51 57 0.14286737902414864 235 81 198 116
14811 -2.5157255386745292 -3.9180246883100636 7.9964495451237907 59 58 58 0.30386986746257511 42 94 123 314 120 175
13481 1.8943138052148045 2.4408098011917665 9.0625446439027311 50 45 39 1.1786719784521569 125 454 124 281 119 195 197 294
14296 9.1213083565093296 -4.1306558931964048 9.6652659686663362 15 23 26 0.43337362512928462 238 183 239 192 203 189 204 165 244 270 243 383 240 365 242 469
13485 0.37234695515145422 -3.8717668449065363 7.9323201366725558 147 141 137 0.42487385510179199 83 312 84 358 118 439 124 298 119 462 158 232 123 437
14300 8.7972070002413041 -3.9330922996333353 8.7297722099586608 44 49 52 0.43238110760849546 198 138 239 277 203 268 243 452 240 413
14642 10.879915968598629 -2.7638404936278342 14.005354026657203 39 45 42 0.58891246749278769 242 312 243 298 161 268 163 112 241 316
13488 -25.543334770166851 -1.785910669041503 16.622688442901481 204 207 200 0.40963056569877238 78 387 125 154 124 380 77 112
14081 10.239431759719814 -3.2591823166024216 14.433439614153047 71 80 79 0.73174603808738448 165 86 205 47 236 75 237 55 238 214 198 76 199 313 203 226 202 311 240 329 200 279 201 132 161 314 162 199 163 150
13494 -1.8668148622555005 -3.9581767404362287 9.1028161615338217 91 96 95 0.56728978300559929 83 503 84 605 118 642 124 472 79 681 119 604
13496 0.41642520018386064 -3.8358942477981897 7.5618217907895238 133 137 134 1.4407870824778868 79 589 42 415 80 388 83 416 124 405 84 434 117 354 82 446 81 258
14089 9.2451717631259704 -4.6103433922561603 15.367829420303128 86 97 101 1.2349461201600525 166 80 237 124 238 276 236 187 164 110
13499 0.18846516579739039 -3.5946837988580893 4.6277847267795309 138 143 145 0.66551844633129775 40 214 1 75 81 253 82 402
14600 15.059223699765107 2.6861677529206385 18.815389259700392 95 131 143 0.32835143170814274 240 339 201 377 161 362 241 359
13501 -5.0190784383677967 8.3909535740016974 -7.9177309433701728 204 205 207 0.73393609677732896 5 410 1 122
14594 10.603460331514597 -4.5027840538897292 13.731826011377109 50 54 53 0.33126737906509579 242 266 201 343 161 301 241 286
13505 3.9952463522577655 -3.4574126234744176 3.5763467196558922 52 61 60 0.54857990422682734 2 405 40 467 1 285 360 336
13508 -0.087235215433730418 9.2434558592885789 -0.05996818278456751 168 157 151 0.39501866420736781 2 450 40 494 1 342
14165 6.0061579374033309 -4.4183412363349879 14.464454773212049 41 43 40 0.92733180519117164 237 41 204 176 205 33 165 11 157 24 200 260 202 284 161 194 162 112 163 28 203 207 160 72
13515 -5.9472519968735336 8.5336626552752453 -8.5114262559739764 110 107 106 1.2567834455921658 44 349 39 335 42 175 1 120 5 403 40 136 358 223
14680 3.9217478362116736 -4.0914867271834376 11.120475798083342 61 72 74 1.1081225239009131 199 359 162 219 163 191 160 106
13524 -23.513072782338025 5.7805620124630632 14.930761799465825 164 143 116 0.085889530149495075 124 176 119 161 123 258
